# .PCD v0.7 - Point Cloud Data file format
VERSION 0.7
FIELDS x y z
SIZE 4 4 4
TYPE F F F
COUNT 1 1 1
WIDTH 2663
HEIGHT 1
VIEWPOINT 0 0 0 1 0 0 0
POINTS 2663
DATA ascii
276 594 18.689455
279 594 16.110828
286 594 6.444386
289 594 8.8817053
293 594 11.604527
298 594 0.83111352
343 594 8.8630676
347 594 10.638319
469 594 17.173767
488 594 18.961008
492 594 12.1715
500 594 10.740007
504 594 5.141449
508 594 7.1837287
515 594 1.3686044
518 594 17.401123
522 594 13.432203
526 594 7.095119
530 594 14.531381
1023 594 9.1596327
396 595 2.2497995
399 595 7.1769714
404 595 4.0485926
407 595 11.744472
411 595 11.27897
419 595 9.733037
424 595 0.60719079
426 595 18.647221
430 595 14.068712
435 595 15.311976
438 595 8.3433971
442 595 16.846249
447 595 14.567021
450 595 11.458152
455 595 0.018310547
458 595 10.85216
462 595 4.0626526
466 595 12.563215
473 595 14.044081
478 595 1.78942
481 595 2.7760098
485 595 1.6826085
497 595 4.776001
511 595 2.0812988
310 596 12.054389
314 596 3.9404187
323 596 3.2720294
327 596 3.2612393
335 596 7.7768598
351 596 17.012569
363 596 14.075688
367 596 9.2866077
372 596 13.160487
375 596 13.222395
379 596 13.359614
383 596 5.0793238
387 596 13.263267
392 596 3.3432007
480 596 6.095777
592 596 19.3076
610 596 0.56893486
614 596 3.3611844
617 596 11.010524
621 596 3.7579129
624 596 14.063807
273 597 11.62529
280 597 2.0168304
286 597 8.7915697
289 597 8.1256323
293 597 5.7085309
298 597 0.67165917
301 597 15.050507
306 597 11.520059
331 597 12.15319
339 597 17.739977
343 597 11.74469
347 597 13.359724
355 597 5.6072779
360 597 8.7746754
534 597 0.35433087
537 597 14.850289
545 597 4.0476117
548 597 11.17205
552 597 15.127782
556 597 15.495409
560 597 0.45852661
563 597 16.585649
567 597 5.0376892
571 597 6.7679267
573 597 8.8815966
574 597 17.060089
577 597 11.074175
582 597 4.5293536
585 597 13.728224
588 597 8.2984924
596 597 3.4696307
599 597 14.630781
603 597 18.082973
638 597 11.514064
268 598 2.2498538
277 598 1.5562875
488 598 18.961008
492 598 11.669486
497 598 9.7335815
500 598 13.221849
503 598 18.025425
508 598 10.256086
509 598 18.774088
515 598 4.2265754
519 598 5.1641192
522 598 16.165052
526 598 10.79919
530 598 2.055032
1023 598 11.903163
436 599 2.1869113
438 599 10.426222
442 599 16.559383
450 599 11.458152
454 599 15.387181
458 599 10.698046
462 599 13.642883
466 599 14.828382
470 599 2.6075091
473 599 18.112074
481 599 12.816293
485 599 9.4226294
511 599 2.4299622
588 599 11.341095
593 599 2.4426053
614 599 3.3611844
617 599 11.010524
621 599 3.9288113
624 599 9.999629
375 600 17.516218
379 600 14.083644
388 600 2.3133414
392 600 6.6101074
396 600 3.981672
399 600 17.066193
404 600 7.0309229
407 600 16.110775
411 600 15.359933
415 600 17.12908
419 600 11.948613
424 600 7.7208381
426 600 18.647221
430 600 14.611162
480 600 6.095777
567 600 1.8699646
582 600 3.7374225
585 600 8.2106457
595 600 17.391205
599 600 10.783278
603 600 16.037533
610 600 6.2612262
314 601 3.9404187
323 601 8.4829054
327 601 17.065866
331 601 18.686239
335 601 5.3583417
339 601 18.277849
343 601 17.668152
347 601 11.278425
352 601 2.2830417
355 601 9.7332544
360 601 8.3596363
363 601 16.250828
367 601 9.1126575
372 601 10.803004
383 601 12.817819
515 601 7.620893
519 601 6.527492
526 601 12.34872
530 601 2.055032
533 601 19.458553
537 601 12.965829
545 601 7.9553876
548 601 14.020103
552 601 16.965702
556 601 13.033403
560 601 0.29449463
563 601 16.585649
571 601 3.4972055
573 601 10.132054
577 601 11.991991
268 602 2.2498538
273 602 11.62529
277 602 6.6462379
280 602 4.8130035
289 602 8.1256323
293 602 3.7695203
298 602 6.284986
301 602 15.639877
306 602 14.777047
310 602 12.24932
485 602 11.83657
492 602 16.318075
497 602 5.6816101
500 602 7.5387139
504 602 1.7692566
508 602 9.6396313
509 602 18.020304
522 602 16.417585
1023 602 14.567348
318 603 9.333147
430 603 16.607012
435 603 19.229671
438 603 18.371473
442 603 19.189999
450 603 5.2134924
454 603 15.387181
458 603 13.278307
462 603 9.3955994
466 603 17.082106
470 603 2.0154681
474 603 0.95563614
481 603 9.8606653
489 603 1.4009749
511 603 5.2322388
375 604 17.516218
379 604 13.359614
388 604 6.5873284
392 604 8.5449219
396 604 4.735456
399 604 17.066193
404 604 11.04551
407 604 18.852779
411 604 16.124399
415 604 19.498007
419 604 11.948613
424 604 5.4396491
427 604 6.9862366
480 604 9.1299877
571 604 0.72849816
593 604 2.4426053
595 604 17.391205
599 604 9.0491161
603 604 9.3770704
610 604 2.2863116
614 604 0.26136127
617 604 8.8185987
620 604 14.855848
624 604 5.6157794
638 604 6.1063495
323 605 7.6211658
327 605 13.625009
340 605 0.86430138
343 605 16.191101
355 605 12.865121
367 605 11.855425
372 605 12.769862
530 605 0.33841816
533 605 19.458553
545 605 7.0780072
548 605 16.380636
553 605 0.12588501
556 605 11.437334
560 605 5.5099487
563 605 17.304338
566 605 18.371037
573 605 15.82816
577 605 16.397966
582 605 7.15768
585 605 10.10121
638 605 16.480801
298 606 8.188139
383 606 14.567239
481 606 12.816293
489 606 4.9715314
492 606 16.318075
497 606 3.5118103
500 606 9.3102589
504 606 5.141449
508 606 6.3979011
515 606 6.4589362
519 606 6.527492
522 606 16.165052
526 606 10.080501
537 606 10.3108
408 607 0.75487411
411 607 18.082865
419 607 15.1377
438 607 13.579451
442 607 12.739345
458 607 8.1879749
467 607 2.5028775
470 607 0.92599052
511 607 3.6483765
613 607 16.631971
617 607 7.3384967
624 607 9.3854628
333 608 17.761885
346 608 16.92058
347 608 17.786299
352 608 6.377738
359 608 15.935081
360 608 8.7746754
363 608 18.209293
364 608 0.67520142
387 608 2.5607517
388 608 9.1881886
395 608 13.486589
396 608 9.7662792
398 608 18.239048
399 608 19.638062
406 608 15.261078
410 608 18.845259
416 608 2.2835867
419 608 11.304692
423 608 13.41411
427 608 11.537933
430 608 15.323748
435 608 16.586086
447 608 14.567021
450 608 16.038076
455 608 4.9316406
571 608 0.72849816
577 608 15.133776
582 608 2.9981341
585 608 7.5636725
588 608 11.341095
592 608 16.372572
595 608 16.585541
599 608 9.0491161
603 608 6.767818
609 608 16.398621
620 608 14.855848
638 608 9.1909132
639 608 0.46419415
288 609 19.433758
292 609 19.016703
293 609 9.5396318
298 609 8.188139
309 609 15.508815
310 609 16.004126
313 609 10.3108
314 609 12.183599
322 609 11.13739
323 609 9.3026838
330 609 12.62643
332 609 3.98189
335 609 7.7768598
339 609 10.923113
340 609 2.1864755
351 609 18.583462
515 609 4.2265754
519 609 4.6033587
522 609 13.769423
526 609 11.640712
530 609 0.33841816
534 609 2.607291
537 609 9.8026819
541 609 11.819022
545 609 6.0434613
548 609 13.58599
553 609 0.12588501
556 609 12.623705
560 609 3.0281067
563 609 19.520678
566 609 17.274693
268 610 10.382789
273 610 14.522552
277 610 9.0727673
280 610 3.6262512
289 610 11.867087
318 610 14.728273
450 610 8.2515173
470 610 5.5211749
474 610 0.75650895
478 610 2.543967
481 610 12.816293
485 610 16.848318
489 610 4.9715314
492 610 14.856284
497 610 5.6816101
500 610 12.41466
504 610 5.141449
508 610 4.3158393
1023 610 11.633082
415 611 19.627707
419 611 17.51807
424 611 8.3594189
427 611 12.802124
431 611 0.1196725
436 611 0.50539291
438 611 18.371473
443 611 2.5218418
455 611 1.9966125
458 611 15.493883
462 611 11.476898
467 611 6.7036219
511 611 5.2322388
595 611 18.353271
599 611 11.023603
603 611 9.3770704
614 611 1.0525295
617 611 6.5099444
621 611 1.6193935
624 611 6.062099
638 611 12.222835
376 612 3.6266873
379 612 18.082973
388 612 11.460222
392 612 12.508392
396 612 13.4055
400 612 2.5670733
404 612 12.770516
408 612 7.083457
412 612 0.31912667
480 612 9.5122204
553 612 2.166748
556 612 9.7664967
559 612 17.442539
566 612 9.1554918
570 612 17.152514
577 612 11.991991
581 612 16.761017
585 612 4.3806891
588 612 3.4126282
592 612 8.2960949
609 612 16.398621
638 612 14.590236
332 613 9.2370167
335 613 7.9553876
343 613 10.192108
347 613 16.124617
352 613 6.0962133
355 613 14.538247
360 613 8.7746754
364 613 1.3237
367 613 17.278399
372 613 12.969752
503 613 19.574955
508 613 5.5182319
515 613 8.710371
519 613 4.6033587
522 613 19.316755
526 613 9.3175611
529 613 18.174635
534 613 0.35433087
537 613 12.086923
545 613 3.2396588
548 613 13.348716
563 613 15.177263
573 613 13.58817
991 613 17.658125
293 614 9.5396318
301 614 18.302536
306 614 17.897852
310 614 16.780035
314 614 12.183599
323 614 11.802455
327 614 19.372232
340 614 0.86430138
383 614 12.78196
450 614 16.038076
458 614 10.627092
462 614 10.798645
467 614 0.96784317
470 614 5.5211749
474 614 0.95563614
478 614 1.6681126
481 614 12.816293
485 614 12.141746
489 614 1.4009749
492 614 14.480155
497 614 3.5118103
500 614 10.07091
617 614 7.3384967
268 615 9.1670446
273 615 16.271973
277 615 6.5008979
280 615 3.6262512
289 615 11.074012
298 615 9.9375591
318 615 15.645327
404 615 12.969644
408 615 6.4837866
412 615 0.31912667
419 615 13.727025
424 615 6.6099982
427 615 12.083435
430 615 17.729296
435 615 17.304012
438 615 15.260969
443 615 2.0800998
454 615 15.387181
511 615 7.4615479
595 615 15.724182
599 615 12.881361
603 615 9.3770704
609 615 17.972565
614 615 4.2591639
620 615 18.953596
624 615 6.062099
638 615 9.9538527
355 616 16.711863
360 616 12.394823
363 616 18.209293
368 616 2.5671823
372 616 15.093776
376 616 3.6266873
380 616 1.197379
388 616 11.732592
392 616 15.701294
396 616 11.254774
399 616 19.371796
415 616 19.375174
480 616 11.635481
548 616 18.661825
552 616 18.106297
556 616 6.1844964
559 616 17.532566
563 616 12.32921
566 616 9.1554918
571 616 1.1793954
577 616 14.392199
581 616 16.761017
585 616 4.3806891
588 616 4.4418335
592 616 7.8108649
638 616 17.059872
306 617 19.182642
311 617 1.7415183
314 617 14.314107
323 617 13.586589
327 617 17.065866
332 617 5.6450982
335 617 7.9553876
340 617 0.86430138
343 617 14.63089
348 617 0.31934467
352 617 6.0962133
383 617 12.744576
500 617 10.07091
503 617 19.574955
508 617 5.5182319
515 617 7.620893
519 617 1.2548174
522 617 19.316755
526 617 12.34872
530 617 1.7185756
533 617 14.80157
537 617 11.09739
545 617 6.0434613
573 617 15.445928
991 617 17.755781
268 618 13.476127
273 618 19.538879
277 618 6.2342505
280 618 11.130142
289 618 12.473624
293 618 15.851048
298 618 11.58322
301 618 17.455292
319 618 0.7204873
443 618 5.5690222
450 618 12.929099
454 618 19.321659
458 618 13.133348
462 618 13.642883
467 618 4.3179102
469 618 19.590759
473 618 18.112074
481 618 14.648873
485 618 16.848318
489 618 2.166966
492 618 17.867605
497 618 11.865997
510 618 0.8631025
603 618 12.675258
610 618 6.3894
614 618 4.2591639
617 618 10.337611
621 618 1.6193935
624 618 9.999629
638 618 12.888881
400 619 1.788875
404 619 13.160378
408 619 7.5938635
412 619 3.0306134
416 619 6.6735406
419 619 15.949468
424 619 4.9399238
427 619 9.2391968
431 619 5.9096198
436 619 1.0974339
438 619 19.534956
511 619 7.2616577
563 619 15.177263
566 619 11.281041
571 619 1.1793954
574 619 14.589691
577 619 6.769671
581 619 14.443207
585 619 5.1352363
588 619 0.13809204
592 619 10.668837
595 619 14.146423
599 619 9.3863354
343 620 16.110992
348 620 1.197488
352 620 3.8157871
355 620 16.711863
360 620 14.988054
364 620 0.44555664
368 620 0.29438564
372 620 13.160487
376 620 0.75498307
380 620 0.31923565
388 620 14.219774
392 620 11.797333
396 620 7.2417121
480 620 11.20442
508 620 5.5182319
515 620 2.1109445
519 620 4.6033587
523 620 2.206094
530 620 1.7185756
537 620 16.921671
545 620 6.9361005
548 620 16.081564
552 620 14.126805
556 620 7.3098321
559 620 17.532566
573 620 13.58817
323 621 8.4829054
327 621 12.24714
332 621 0.44566563
335 621 7.7768598
340 621 4.4592719
481 621 18.80308
485 621 16.848318
489 621 3.5745893
492 621 11.669486
497 621 10.76889
500 621 13.459124
503 621 16.279819
526 621 12.34872
534 621 2.607291
1023 621 14.567348
268 622 15.19274
274 622 5.3765979
277 622 8.6623058
280 622 12.137985
289 622 16.836874
293 622 19.022205
298 622 9.8696575
302 622 1.7949785
307 622 2.2508893
310 622 19.324438
314 622 14.629964
319 622 4.6458106
351 622 16.723415
419 622 15.1377
431 622 3.1973703
436 622 3.8051059
438 622 17.274366
443 622 8.6863928
450 622 14.321464
454 622 18.257359
458 622 13.133348
462 622 11.476898
466 622 18.132673
470 622 0.42397636
473 622 18.369184
509 622 16.156443
511 622 12.258148
603 622 15.114375
610 622 2.6700702
613 622 16.631971
617 622 3.5749164
620 622 19.124495
624 622 2.5670733
638 622 13.516017
400 623 6.8593707
404 623 10.802896
408 623 6.4837866
412 623 5.7680402
416 623 4.5128961
424 623 5.4396491
427 623 6.9862366
480 623 9.1299877
566 623 6.1701093
571 623 1.1793954
574 623 14.589691
576 623 15.445273
581 623 18.503571
585 623 5.1352363
588 623 0.13809204
592 623 7.8108649
596 623 0.9313311
599 623 14.630781
352 624 4.2682104
367 624 17.44243
372 624 16.977474
376 624 3.6266873
380 624 3.0299594
388 624 16.518511
392 624 12.508392
396 624 8.2152233
508 624 11.543165
515 624 5.428968
519 624 6.527492
522 624 18.971907
530 624 8.1249781
534 624 6.1702185
537 624 16.576059
545 624 8.8815966
548 624 12.827628
552 624 16.238621
556 624 5.3605218
559 624 17.628696
563 624 16.585649
573 624 14.253453
991 624 17.330061
323 625 4.9569812
327 625 14.757211
331 625 19.255392
335 625 10.016088
340 625 4.8506598
343 625 14.63089
347 625 18.927656
351 625 16.811153
355 625 18.980844
360 625 14.126696
364 625 3.1570435
482 625 0.46561104
485 625 14.537375
489 625 2.8902326
492 625 13.476127
497 625 9.7335815
500 625 13.893999
503 625 17.836979
526 625 12.34872
290 626 0.34381321
302 626 5.8873858
307 626 3.6814008
310 626 18.655722
314 626 14.979009
319 626 2.5416238
424 626 3.7527902
431 626 9.1124401
436 626 1.0974339
438 626 19.195448
443 626 5.0265722
450 626 9.7316198
455 626 0.80490112
458 626 10.772814
462 626 15.324402
466 626 15.154158
470 626 2.6075091
473 626 17.245375
478 626 0.86321151
511 626 12.194824
617 626 4.4912066
620 626 8.9529858
623 626 14.693451
268 627 18.224661
274 627 6.7170825
277 627 11.149488
280 627 12.137985
294 627 6.8195343
298 627 13.652311
380 627 1.197379
388 627 13.585772
396 627 6.927381
400 627 5.5097308
404 627 12.108285
408 627 8.2332067
412 627 2.1234784
416 627 7.3151727
419 627 16.712406
427 627 11.405182
480 627 9.1299877
556 627 7.7607293
560 627 1.0162354
577 627 2.230181
581 627 17.300415
585 627 5.1352363
588 627 1.1604309
592 627 11.247908
595 627 17.391205
599 627 14.630781
603 627 11.869594
609 627 17.972565
613 627 12.693678
638 627 9.9538527
335 628 14.693669
340 628 8.2808361
347 628 17.281996
352 628 4.2682104
356 628 6.1601911
360 628 8.161272
364 628 0.44555664
368 628 0.45841762
372 628 16.871426
376 628 0.75498307
392 628 15.930939
522 628 19.316755
526 628 11.640712
530 628 12.80256
534 628 3.2351902
537 628 13.130624
545 628 5.808476
548 628 15.359824
552 628 15.216283
563 628 13.600267
566 628 13.148717
571 628 0.72849816
573 628 14.253453
574 628 9.1911316
1023 628 14.567348
290 629 4.9847741
294 629 6.8195343
298 629 13.769804
302 629 0.9893145
307 629 11.178426
310 629 13.456672
314 629 18.215397
323 629 6.7144122
328 629 0.13068064
331 629 9.5836096
344 629 0.75509208
383 629 12.318093
478 629 7.7800207
481 629 11.751992
485 629 7.2642736
489 629 6.5096173
493 629 0.059618268
497 629 4.776001
500 629 13.459124
504 629 4.0786743
508 629 9.0407238
515 629 10.694777
519 629 6.9707599
603 629 10.407039
609 629 14.047241
614 629 0.26136127
620 629 15.296827
624 629 2.9073443
269 630 6.5644403
274 630 6.7170825
277 630 8.8618145
280 630 12.137985
319 630 4.6458106
439 630 10.192544
443 630 7.4313574
451 630 2.1103995
455 630 10.079193
458 630 13.133348
462 630 13.378143
467 630 10.333688
469 630 17.173767
473 630 15.395247
511 630 6.8275452
582 630 1.6599382
588 630 13.033295
592 630 9.6251354
595 630 15.822601
599 630 13.07057
617 630 5.3418841
638 630 7.7802386
400 631 0.81765312
404 631 18.950327
408 631 2.0167758
412 631 6.0579572
416 631 9.9160328
420 631 3.4233093
424 631 2.5023324
428 631 3.1568255
431 631 14.694105
436 631 2.1869113
552 631 16.238621
556 631 2.2500174
559 631 17.628696
563 631 10.568346
567 631 0.67825317
570 631 18.845476
577 631 13.942064
585 631 5.1352363
638 631 6.9684711
364 632 11.254883
368 632 7.1883063
372 632 17.077419
376 632 5.3135462
380 632 8.5299902
384 632 10.035161
388 632 7.6645989
393 632 0.89013237
396 632 5.894361
500 632 11.605944
504 632 11.130524
508 632 7.8902106
515 632 13.263594
519 632 3.2605853
522 632 18.971907
526 632 15.324183
530 632 17.71818
534 632 0.92577255
537 632 13.130624
541 632 11.085837
545 632 2.7765546
548 632 12.541526
991 632 17.330061
335 633 14.693669
340 633 12.560163
344 633 3.944942
347 633 15.80113
352 633 15.051597
356 633 12.466649
360 633 14.126696
474 633 1.8841335
478 633 9.9536352
481 633 2.4754117
484 633 15.558406
489 633 8.2109728
493 633 0.13896397
497 633 3.9207458
617 633 4.4912066
620 633 13.033186
624 633 9.3854628
290 634 3.9773123
294 634 2.6786804
298 634 16.044889
302 634 8.8067732
307 634 15.5165
311 634 3.6774771
315 634 11.956787
323 634 12.455531
328 634 7.5998578
331 634 11.647361
352 634 4.0362768
431 634 17.00276
436 634 8.5925512
439 634 15.973336
443 634 10.637992
451 634 10.971941
455 634 11.719513
458 634 12.996019
462 634 7.6408386
467 634 7.4947901
469 634 17.653656
511 634 14.567566
582 634 0.48119682
585 634 11.223494
588 634 18.224335
592 634 11.148726
595 634 12.7388
599 634 14.630781
603 634 9.7402296
609 634 17.111206
613 634 16.017805
638 634 8.5454664
269 635 0.13934544
274 635 10.873576
277 635 14.042173
280 635 15.946198
319 635 4.413877
400 635 0.45830864
408 635 0.48097882
412 635 0.17721994
416 635 12.571062
420 635 6.1599731
424 635 10.481916
428 635 6.5992084
552 635 19.370487
556 635 3.2281058
559 635 14.693669
563 635 13.600267
566 635 17.274693
571 635 1.6646249
577 635 15.799059
638 635 9.9538527
356 636 14.757756
360 636 14.882769
364 636 17.578888
368 636 6.2506537
372 636 19.112942
376 636 13.021523
380 636 12.497275
384 636 12.758855
388 636 0.0039236885
392 636 15.052795
396 636 4.1121345
404 636 18.950327
500 636 14.093126
508 636 6.801496
515 636 16.027723
519 636 4.9314227
523 636 1.7910548
526 636 17.72897
530 636 19.004496
533 636 17.654202
537 636 9.3555994
545 636 2.229527
548 636 15.359824
573 636 13.67896
992 636 2.6936123
306 637 12.932641
309 637 13.364573
313 637 12.539346
322 637 2.1816254
326 637 18.051039
332 637 3.0945914
333 637 16.987501
335 637 5.3583417
343 637 4.1717529
347 637 15.80113
348 637 0.17743792
352 637 4.7702246
360 637 7.7202935
363 637 19.053867
367 637 3.1975882
372 637 1.3250078
383 637 0.61460221
481 637 4.9023218
484 637 15.558406
489 637 5.8435712
492 637 18.224661
497 637 3.1135559
504 637 6.4834595
510 637 6.9681439
588 637 13.033295
620 637 13.033186
624 637 1.9681658
267 638 10.533305
268 638 4.2636328
272 638 16.372517
273 638 11.62529
276 638 11.045565
277 638 6.5008979
279 638 10.40862
280 638 7.5939178
286 638 0.86272103
292 638 19.076593
293 638 9.9119463
301 638 18.302536
306 638 17.544611
310 638 12.24932
314 638 5.9751782
318 638 13.393511
436 638 8.8900976
440 638 1.6908919
451 638 15.949358
455 638 16.165161
462 638 5.316925
467 638 5.4813929
470 638 1.5340532
473 638 18.614088
478 638 0.86321151
485 638 16.848318
563 638 18.145861
567 638 5.0376892
573 638 11.646489
603 638 9.7402296
613 638 16.017805
614 638 1.0525295
621 638 5.7415552
624 638 14.063807
1023 638 14.567348
424 639 7.2096686
427 639 7.5576782
430 639 17.186083
435 639 17.982265
438 639 18.371473
443 639 5.5690222
450 639 11.458152
454 639 18.497684
461 639 17.521885
462 639 12.117767
466 639 18.450819
469 639 14.411163
480 639 18.714796
484 639 15.918513
489 639 4.2932782
492 639 10.936301
497 639 0.34866333
500 639 14.093126
504 639 8.6486816
508 639 9.1101513
509 639 18.4918
511 639 9.8892212
515 639 18.749891
519 639 7.7275958
522 639 10.852705
526 639 16.606686
530 639 17.71818
534 639 3.2351902
537 639 13.130624
545 639 2.229527
549 639 1.6831534
553 639 5.1353455
991 639 17.330061
290 641 10.471834
294 641 7.2860718
299 641 1.7910548
455 641 18.978882
458 641 18.341936
467 641 5.4813929
470 641 7.7443805
474 641 5.0243921
481 641 8.881814
484 641 18.391201
510 641 9.190587
588 641 12.171173
592 641 13.491713
599 641 14.630781
603 641 18.692562
610 641 1.0472978
613 641 18.503462
617 641 1.7896379
620 641 17.140852
623 641 18.376923
638 641 13.516017
269 642 1.6194479
274 642 12.347194
277 642 15.891157
280 642 17.979813
319 642 8.735548
412 642 1.122502
432 642 1.9680568
436 642 11.045402
439 642 18.656595
443 642 16.522543
451 642 18.980516
462 642 11.640167
480 642 2.0941598
556 642 3.3127921
559 642 14.693669
563 642 12.738909
567 642 1.8699646
571 642 4.0366035
577 642 15.287889
582 642 0.48119682
585 642 2.1666391
595 642 14.411926
638 642 18.592617
384 643 12.09052
388 643 7.6645989
392 643 17.810059
396 643 8.0168591
400 643 6.1795917
404 643 16.521128
407 643 17.516872
416 643 12.09041
420 643 11.460114
424 643 11.640821
428 643 7.2423663
534 643 0.35433087
537 643 12.626321
545 643 3.1526837
548 643 18.287985
552 643 16.435459
573 643 13.67896
364 644 9.7663879
368 644 4.3860297
373 644 1.5567235
376 644 19.642313
380 644 12.497275
493 644 0.059618268
497 644 3.9207458
500 644 13.459124
504 644 15.001678
508 644 11.310469
515 644 18.109022
519 644 4.9314227
522 644 18.646894
527 644 0.59084213
530 644 17.216166
992 644 2.6936123
331 645 10.396903
335 645 4.5404706
340 645 14.282118
344 645 4.3592181
348 645 2.1236966
352 645 19.43392
356 645 16.647556
360 645 16.30031
458 645 18.341936
462 645 13.378143
467 645 9.4402857
470 645 4.6094623
474 645 2.0962307
480 645 6.6733222
481 645 8.881814
485 645 7.6480322
489 645 8.8182726
510 645 9.9535265
588 645 12.171173
592 645 14.063154
595 645 9.4406128
599 645 11.424147
603 645 13.438197
610 645 3.0080523
613 645 15.451704
617 645 2.7127948
620 645 13.033186
638 645 11.350795
303 646 1.4483861
307 646 17.12859
311 646 2.0241873
315 646 11.956787
323 646 12.864848
328 646 9.7772875
352 646 8.7672644
420 646 6.5872192
428 646 7.2423663
431 646 19.371687
436 646 11.277335
439 646 18.656595
443 646 17.282431
451 646 18.980516
456 646 2.5022235
559 646 11.545781
563 646 12.738909
566 646 19.195011
571 646 3.5841806
577 646 12.526812
581 646 17.300415
585 646 1.4006479
638 646 13.516017
269 647 3.099932
274 647 15.154429
277 647 18.469893
281 647 4.1669574
290 647 16.159548
294 647 18.44635
299 647 0.73171341
319 647 2.8124673
388 647 10.542406
392 647 13.220215
396 647 5.1199775
400 647 5.8339801
404 647 14.46119
407 647 17.516872
412 647 0.17721994
416 647 13.688005
424 647 13.281904
519 647 6.1185565
523 647 2.206094
530 647 19.004496
534 647 0.92577255
537 647 12.626321
545 647 1.3651167
548 647 11.905997
552 647 15.320806
555 647 17.565481
573 647 13.67896
348 648 6.4724512
353 648 3.3448355
357 648 1.6830444
360 648 19.071306
364 648 12.684631
368 648 14.063154
373 648 3.5937717
377 648 4.1666303
380 648 13.747733
416 648 16.215624
489 648 8.8182726
493 648 0.059618268
497 648 8.7554932
500 648 15.955462
504 648 13.999939
508 648 13.747297
515 648 18.109022
527 648 3.1978061
595 648 10.333252
609 648 19.168854
613 648 19.176374
617 648 8.8185987
992 648 8.4232874
315 649 13.359833
323 649 15.949031
328 649 7.1398053
331 649 8.520072
335 649 4.5404706
340 649 14.461409
344 649 4.3592181
352 649 9.1296606
443 649 19.129507
459 649 1.3998849
462 649 17.185974
467 649 6.5159388
470 649 1.5340532
474 649 2.0962307
481 649 8.881814
485 649 7.6480322
510 649 6.9681439
571 649 6.3216071
577 649 10.743822
581 649 19.585419
585 649 6.5092902
588 649 12.171173
592 649 13.491713
599 649 11.424147
603 649 11.115047
269 650 7.6893945
274 650 19.621059
278 650 0.92626297
281 650 4.1669574
291 650 0.10479518
295 650 2.193996
298 650 18.543516
302 650 19.47839
308 650 0.56037903
311 650 2.6047843
319 650 2.8124673
420 650 8.4709167
424 650 14.126478
428 650 4.7353473
431 650 19.248854
436 650 9.7033911
439 650 18.656595
452 650 0.0044686454
456 650 2.5022235
480 650 4.0366035
530 650 19.004496
534 650 2.607291
537 650 6.7463465
545 650 3.6379132
548 650 9.4371252
552 650 11.721257
556 650 3.3127921
559 650 14.693669
563 650 11.821856
566 650 16.239384
573 650 10.219029
373 651 5.5819921
384 651 13.688115
388 651 7.6645989
392 651 15.052795
396 651 6.184278
400 651 5.8339801
404 651 16.760691
407 651 19.068691
412 651 7.1832929
416 651 13.688005
508 651 12.045179
516 651 5.7079859
519 651 6.1185565
522 651 19.316755
527 651 0.11934553
992 651 6.3053675
335 652 9.4499865
348 652 10.677011
353 652 1.3054984
356 652 19.133213
361 652 0.94288415
364 652 16.246033
368 652 16.088758
377 652 1.2743269
380 652 18.249838
459 652 3.2835824
462 652 16.606903
467 652 10.333688
470 652 0.92599052
474 652 1.8841335
481 652 11.992318
485 652 10.773795
489 652 8.2109728
493 652 8.0254688
497 652 10.76889
501 652 1.5562875
504 652 17.980194
510 652 9.9535265
588 652 15.192413
595 652 9.4406128
599 652 11.235701
603 652 11.115047
610 652 3.0080523
613 652 16.017805
617 652 8.1060133
638 652 9.9538527
295 653 5.0172534
308 653 1.4064789
311 653 7.601275
315 653 16.124344
323 653 16.711971
328 653 10.731725
331 653 15.240806
340 653 14.461409
344 653 8.6484632
352 653 6.377738
436 653 7.6594763
439 653 13.287789
443 653 11.278861
451 653 18.980516
456 653 3.7526813
480 653 2.2833688
559 653 11.758641
566 653 19.195011
571 653 1.273237
577 653 14.648546
582 653 0.48119682
585 653 5.8432441
592 653 15.744673
638 653 13.516017
275 654 1.0886601
277 654 18.469893
281 654 9.2637739
291 654 3.2206399
298 654 18.147932
303 654 0.52522933
319 654 4.867063
407 654 16.038296
412 654 5.2339826
416 654 14.19002
420 654 6.5872192
424 654 9.7777233
428 654 3.9815631
432 654 4.1416712
530 654 16.354044
537 654 4.2538233
545 654 0.55411202
548 654 3.5960605
552 654 12.964086
555 654 18.818991
563 654 12.738909
573 654 9.7223558
269 655 12.499346
388 655 4.7181268
393 655 6.2185016
396 655 9.7662792
400 655 11.148616
405 655 1.5566145
497 655 9.7335815
500 655 15.792192
504 655 13.999939
508 655 15.06642
516 655 5.228097
519 655 7.7275958
522 655 19.316755
527 655 2.3845127
533 655 19.458553
992 655 3.4061978
344 656 7.5940814
348 656 8.0891199
352 656 19.43392
356 656 19.076756
360 656 17.138018
364 656 18.753052
368 656 13.56114
373 656 3.5937717
376 656 18.83436
380 656 18.249838
384 656 15.670232
470 656 5.4509845
474 656 8.0616541
481 656 13.941628
485 656 13.17858
489 656 13.728551
493 656 16.358294
510 656 16.308048
595 656 11.474609
599 656 14.630781
603 656 11.956569
610 656 3.0080523
614 656 2.5326321
617 656 4.4912066
638 656 10.602351
328 657 12.394933
331 657 16.994802
335 657 12.184361
340 657 14.461409
443 657 11.956351
451 657 15.949358
455 657 18.978882
458 657 17.781176
462 657 13.378143
467 657 15.900857
479 657 17.329515
559 657 11.758641
563 657 10.846056
567 657 5.0376892
570 657 18.845476
577 657 13.942064
581 657 15.343475
585 657 5.1352363
588 657 15.192413
592 657 8.2960949
638 657 8.3791456
291 658 6.87779
295 658 5.0172534
299 658 0.26288715
303 658 0.84680831
308 658 5.2650452
311 658 11.882128
315 658 16.931915
323 658 16.711971
352 658 8.0951147
412 658 10.256413
416 658 13.688005
420 658 3.931427
424 658 6.0675483
428 658 0.44610161
431 658 19.501387
436 658 6.6943579
439 658 17.379435
533 658 17.654202
537 658 6.7463465
541 658 12.372916
544 658 16.499002
548 658 3.5960605
552 658 13.064031
555 658 17.058126
269 659 12.499346
275 659 1.0886601
277 659 18.950163
281 659 6.3832965
319 659 10.445677
373 659 1.5567235
384 659 15.670232
388 659 7.6645989
393 659 6.2185016
396 659 8.6562023
400 659 8.7117872
404 659 18.950327
407 659 16.110775
493 659 13.115801
497 659 13.815308
500 659 18.450274
504 659 19.244385
508 659 16.697584
515 659 15.137373
519 659 10.078975
523 659 6.2748499
526 659 19.258663
530 659 16.354044
609 659 17.740631
613 659 19.176374
617 659 4.4912066
992 659 6.3053675
331 660 19.430868
336 660 2.35672
340 660 14.461409
344 660 11.130305
348 660 6.8012781
352 660 16.790335
356 660 16.38129
360 660 15.808214
364 660 10.803223
368 660 14.593397
376 660 15.94587
380 660 16.913931
474 660 13.643319
481 660 18.80308
485 660 19.412558
489 660 14.170293
510 660 19.044712
566 660 13.148717
570 660 16.846575
577 660 9.9442616
581 660 13.179016
585 660 8.2106457
588 660 5.1200867
591 660 17.532457
595 660 15.011597
599 660 16.190992
603 660 9.1130934
295 661 7.0741382
299 661 3.8586209
303 661 4.2972021
308 661 6.8645477
311 661 12.006868
315 661 18.082809
324 661 2.8846195
328 661 11.641149
352 661 9.6827917
443 661 15.660422
451 661 14.538683
455 661 16.165161
458 661 15.493883
462 661 17.185974
467 661 13.901193
470 661 7.5780597
480 661 0.12196132
537 661 13.130624
545 661 0.55411202
548 661 9.8292761
552 661 18.106297
556 661 3.2281058
559 661 14.693669
563 661 11.821856
573 661 15.445928
269 662 14.379992
275 662 2.1430423
277 662 19.458662
281 662 6.3832965
291 662 2.3772104
319 662 14.567457
412 662 9.040288
416 662 9.5124378
420 662 5.2284241
424 662 11.462294
427 662 16.25061
431 662 14.694105
436 662 5.1722937
439 662 14.630563
515 662 14.272963
519 662 11.550685
523 662 8.1654139
527 662 0.11934553
530 662 8.1249781
533 662 18.163845
992 662 3.1544278
373 663 3.8051059
376 663 14.000375
380 663 16.698019
388 663 18.661608
393 663 1.6141618
396 663 11.437117
400 663 8.2959852
404 663 14.281899
408 663 7.083457
480 663 19.433485
489 663 15.693883
493 663 11.212267
497 663 17.442322
501 663 1.5562875
504 663 15.089417
508 663 19.575392
599 663 11.744581
602 663 18.845367
609 663 19.168854
613 663 12.247358
617 663 1.7896379
638 663 4.5461383
349 664 4.2413983
353 664 1.0644095
356 664 10.197667
361 664 3.5750253
364 664 5.8944702
368 664 17.038618
455 664 8.9897156
459 664 0.35389492
462 664 18.718719
467 664 7.4947901
470 664 11.577388
474 664 10.500772
482 664 8.2514086
486 664 3.3616202
510 664 15.197972
581 664 14.928436
585 664 11.223494
588 664 4.2633057
592 664 4.1418891
595 664 18.854523
324 665 14.408439
328 665 12.507848
332 665 15.769304
336 665 7.5370789
340 665 14.793287
344 665 17.979977
352 665 15.051597
451 665 8.5473194
479 665 17.128862
545 665 2.7765546
548 665 15.558951
553 665 2.8114319
556 665 6.1844964
559 665 14.693669
563 665 15.82271
566 665 6.9330487
570 665 17.48134
573 665 16.571262
574 665 10.759735
577 665 3.1525748
299 666 9.8671503
303 666 6.4643316
308 666 0.99220276
312 666 0.0040871757
315 666 18.338013
404 666 12.560708
408 666 13.021415
412 666 9.6399584
416 666 9.9160328
420 666 9.8297119
424 666 13.220106
427 666 9.8670959
431 666 14.694105
436 666 9.061759
439 666 8.5606165
444 666 2.1233695
526 666 17.18652
530 666 8.1249781
534 666 2.1808078
537 666 14.043862
269 667 19.569506
275 667 4.8308783
278 667 2.6074002
281 667 12.087031
287 667 16.958237
290 667 16.159548
295 667 4.9840655
376 667 17.074259
380 667 15.368979
389 667 1.6829355
392 667 18.308258
396 667 14.559065
400 667 9.7890577
480 667 18.784986
501 667 1.5562875
504 667 10.605621
509 667 1.4935085
516 667 0.36740986
519 667 17.963192
523 667 5.152566
602 667 13.468933
610 667 1.0472978
613 667 16.017805
617 667 0.79705375
638 667 4.5461383
992 667 3.1544278
356 668 10.866765
361 668 0.44926235
364 668 9.7663879
368 668 19.3076
373 668 3.7486484
455 668 4.4311523
459 668 2.8799875
463 668 2.8852191
467 668 7.4947901
470 668 10.776301
474 668 10.434396
482 668 11.289433
486 668 9.7451344
489 668 13.093022
493 668 12.499346
498 668 3.9029803
510 668 13.172368
582 668 2.5327411
585 668 8.2106457
588 668 3.3126831
592 668 10.668837
595 668 19.520569
599 668 5.9920173
340 669 19.11305
344 669 18.834469
348 669 18.387278
353 669 3.6378043
439 669 6.8440027
444 669 0.011553084
451 669 6.643023
511 669 14.567566
538 669 2.8177533
545 669 8.8815966
548 669 15.744346
553 669 2.8114319
556 669 9.1668262
559 669 14.693669
564 669 0.5049569
566 669 8.3437243
570 669 14.46773
576 669 19.43392
436 670 9.061759
534 670 11.28115
368 671 14.063154
482 671 11.289433
486 671 12.548937
595 671 13.600159
333 672 2.9623849
341 672 1.5560695
345 672 1.2744359
348 672 16.914042
353 672 6.0433526
356 672 16.082218
361 672 1.6142709
364 672 12.623596
451 672 5.6077142
459 672 5.0040107
463 672 5.3586688
467 672 9.0694971
470 672 10.776301
474 672 10.434396
510 672 11.217717
511 672 14.567566
556 672 9.1668262
564 672 0.5049569
566 672 11.281041
570 672 17.48134
577 672 4.5540948
581 672 17.879486
585 672 4.3806891
588 672 4.2633057
638 672 7.5147357
295 673 15.76974
299 673 10.39663
303 673 1.7299107
308 673 5.2650452
313 673 0.59095109
316 673 10.982677
320 673 17.873438
324 673 16.648046
328 673 17.138126
336 673 11.964417
420 673 12.541199
424 673 16.965376
427 673 17.913055
431 673 8.9270458
436 673 6.4608984
439 673 8.2241602
443 673 15.660422
455 673 11.871338
523 673 1.7910548
534 673 15.260642
538 673 8.0621996
545 673 9.8604479
548 673 15.744346
553 673 5.8433533
559 673 17.532566
574 673 5.6968689
278 674 6.8546839
282 674 2.6545932
288 674 1.1430467
290 674 18.816484
400 674 12.952968
405 674 9.7856798
409 674 1.4878409
412 674 11.764745
416 674 13.079943
501 674 4.2204719
504 674 18.327332
508 674 17.929731
516 674 1.7056056
519 674 14.757319
527 674 0.59084213
530 674 11.331613
609 674 16.398621
613 674 8.887373
992 674 5.9605188
270 675 2.0785196
275 675 6.5879278
364 675 18.224335
368 675 17.038618
373 675 8.6627417
377 675 0.46255928
380 675 16.913931
388 675 18.886675
393 675 3.5749164
396 675 17.236982
417 675 3.6383493
482 675 4.0293012
486 675 7.7042718
489 675 13.87885
493 675 9.4056263
497 675 15.672302
577 675 6.769671
581 675 14.443207
585 675 4.3806891
588 675 7.3097229
592 675 1.0161264
595 675 10.568237
599 675 9.9524364
602 675 18.845367
345 676 3.4480503
349 676 0.013187953
353 676 5.1980157
356 676 13.348607
361 676 8.2892284
436 676 5.5812292
439 676 11.423928
444 676 0.17787388
451 676 5.6077142
455 676 13.276672
459 676 2.4977548
463 676 7.5879779
467 676 12.089974
470 676 10.017177
474 676 12.739999
510 676 12.359075
511 676 12.31842
553 676 8.8188171
556 676 10.382952
559 676 17.532566
563 676 17.304338
566 676 8.3437243
571 676 4.0366035
317 677 3.4839084
324 677 16.648046
329 677 1.3404846
333 677 5.6456428
336 677 17.910767
341 677 3.6945889
416 677 17.396654
422 677 7.0590429
425 677 16.912516
428 677 5.8950152
431 677 8.9270458
530 677 13.892037
534 677 13.315146
538 677 5.4773602
545 677 9.8604479
548 677 18.661825
574 677 0.86288452
295 678 13.667842
300 678 0.70822579
303 678 11.656135
307 678 19.520405
313 678 7.3700495
320 678 19.433649
388 678 7.3731561
392 678 14.988708
397 678 6.8630762
401 678 0.93797958
406 678 3.0029297
409 678 9.8542347
412 678 5.518559
501 678 1.5562875
504 678 17.351532
508 678 16.458021
516 678 6.751687
519 678 17.794582
523 678 9.2396326
527 678 1.0325841
595 678 11.474609
602 678 17.926788
609 678 18.608856
637 678 18.773651
992 678 3.4061978
275 679 6.5879278
278 679 7.5779505
281 679 17.245647
288 679 4.877254
290 679 16.784014
368 679 14.063154
373 679 5.9947424
376 679 13.021523
380 679 15.642875
384 679 18.842533
424 679 12.264143
428 679 9.7661695
433 679 5.4041181
482 679 2.758244
486 679 3.6523001
489 679 8.2887926
493 679 6.5644403
497 679 18.676758
510 679 11.108617
570 679 17.48134
577 679 12.276567
581 679 14.443207
585 679 4.3806891
588 679 5.3604126
592 679 1.0161264
599 679 8.8637218
638 679 9.0917311
269 680 18.439974
317 680 17.721884
333 680 9.4763622
345 680 5.7170324
349 680 2.9009137
353 680 4.3976922
356 680 10.197667
361 680 10.436903
364 680 16.584778
437 680 1.5565054
451 680 2.5612967
455 680 10.079193
459 680 0.68272179
463 680 5.3586688
467 680 8.9748926
470 680 9.2954359
474 680 12.869699
479 680 19.627489
538 680 3.2541547
545 680 10.743932
548 680 18.661825
553 680 8.2107544
556 680 15.192522
559 680 17.442539
563 680 19.520678
566 680 11.281041
573 680 17.841557
290 681 11.090197
294 681 4.2591095
308 681 4.4284821
313 681 4.5109339
321 681 2.7761731
325 681 1.6827719
329 681 5.267334
336 681 17.910767
341 681 3.7487576
420 681 0.0038146973
432 681 3.2803128
436 681 11.045402
440 681 0.23138864
444 681 6.3973565
519 681 11.719295
523 681 4.1630335
526 681 18.239376
530 681 9.6050806
534 681 11.57717
288 682 8.4226332
300 682 9.4312944
304 682 12.331499
368 682 11.964308
373 682 8.7603979
376 682 16.838511
381 682 5.6145806
441 682 1.663208
444 682 17.741503
448 682 11.274719
451 682 18.272509
486 682 6.2966485
489 682 8.8182726
493 682 6.5644403
497 682 16.888428
500 682 15.792192
504 682 13.999939
508 682 18.098341
515 682 17.517744
592 682 0.63236779
595 682 11.474609
599 682 7.6010566
602 682 18.215179
609 682 18.608856
638 682 4.2913165
992 682 5.9605188
270 683 2.0785196
275 683 5.6327276
278 683 10.426385
282 683 2.6545932
349 683 3.8980756
353 683 0.35869053
356 683 11.171941
361 683 9.3207226
365 683 0.21187918
385 683 17.111206
390 683 3.1902859
455 683 17.642975
459 683 0.041852679
463 683 5.1007953
467 683 10.506112
470 683 8.6087904
474 683 10.434396
482 683 6.8437848
510 683 11.802892
566 683 14.259557
570 683 17.48134
577 683 5.5306573
581 683 14.443207
585 683 2.0003183
588 683 3.2287598
638 683 8.1685743
308 684 18.79425
313 684 4.8954554
318 684 3.2612936
329 684 8.8188171
333 684 8.824049
336 684 13.085175
341 684 1.5560695
345 684 6.0923986
393 684 11.148616
397 684 0.78321183
402 684 8.9158192
427 684 3.012085
534 684 9.6187048
538 684 3.1168256
545 684 9.7887316
548 684 18.815939
553 684 3.5751343
557 684 1.6196115
560 684 3.2798767
563 684 18.145861
573 684 18.773869
290 685 1.4695303
305 685 19.089781
321 685 2.8749738
325 685 1.6827719
405 685 15.800694
409 685 4.3053765
416 685 4.8295159
515 685 10.972486
519 685 8.3509169
523 685 5.152566
526 685 14.716121
530 685 8.1249781
595 685 11.474609
599 685 5.9920173
603 685 4.0364947
610 685 1.0472978
638 685 4.2913165
282 686 10.726111
288 686 4.877254
300 686 17.655399
413 686 13.28125
467 686 13.953835
474 686 8.0616541
482 686 5.3652081
486 686 6.9810052
489 686 7.3381696
493 686 3.2693045
497 686 15.672302
500 686 13.459124
504 686 8.4899902
508 686 17.929731
510 686 9.3332567
581 686 11.836243
585 686 10.10121
588 686 4.2633057
591 686 17.628588
991 686 17.568098
270 687 0.98942345
275 687 13.136619
278 687 13.314874
361 687 9.7967968
364 687 11.522675
369 687 0.088174
373 687 14.316886
456 687 10.390254
459 687 1.7905099
463 687 7.7764239
470 687 9.6791945
560 687 3.5484314
564 687 1.5791757
566 687 17.274693
571 687 1.1793954
577 687 5.5306573
638 687 11.72082
318 688 4.0692468
352 688 16.826956
356 688 7.5571332
451 688 14.27318
534 688 12.187522
538 688 3.1168256
545 688 12.816075
549 688 1.6831534
553 688 5.8433533
557 688 0.059400287
574 688 1.789093
321 689 0.95312935
324 689 19.502584
329 689 1.789093
333 689 3.6101205
336 689 18.244934
341 689 4.4910975
345 689 3.4480503
349 689 4.157475
377 689 18.475559
511 689 10.60257
515 689 8.710371
519 689 5.1641192
523 689 2.206094
526 689 15.324183
530 689 9.6851892
599 689 5.9920173
603 689 9.7402296
610 689 0.46517509
638 689 7.0966449
991 689 17.568098
288 690 2.5346484
290 690 0.94615394
313 690 15.757424
422 690 19.031851
444 690 6.9848199
481 690 17.435129
486 690 5.0324578
489 690 7.0146832
493 690 1.6198294
497 690 14.10675
500 690 12.107958
504 690 7.7476501
508 690 14.729963
560 690 6.5467834
564 690 5.5815558
567 690 9.3864441
571 690 9.3771801
581 690 9.1995239
585 690 8.106123
588 690 4.4418335
592 690 6.9395881
595 690 15.177917
278 691 18.13093
282 691 16.038839
301 691 10.616302
309 691 6.9638934
436 691 12.970298
439 691 18.107279
458 691 16.888536
463 691 6.3054767
467 691 14.912087
470 691 4.7223773
474 691 10.099465
541 691 14.099448
545 691 1.9647871
548 691 13.58599
553 691 2.166748
556 691 9.7664967
577 691 2.230181
638 691 10.759517
307 692 5.7215009
324 692 17.996161
329 692 4.7637939
333 692 0.73154992
337 692 1.0724748
341 692 7.521493
345 692 0.28566632
349 692 8.6977282
352 692 16.979544
357 692 0.43716431
361 692 15.267836
364 692 7.6019287
369 692 15.33323
373 692 10.79592
385 692 19.035339
391 692 17.441776
394 692 4.2712622
396 692 4.2639594
403 692 5.3953986
405 692 5.6291852
416 692 1.1948721
417 692 19.074903
426 692 11.757878
430 692 2.2660391
439 692 14.630563
447 692 0.85852486
450 692 14.802878
456 692 7.6566424
506 692 6.6760473
511 692 7.232666
519 692 2.7311053
522 692 16.827284
526 692 4.6727862
530 692 8.1249781
534 692 4.7732763
537 692 10.3108
307 693 6.3322339
309 693 8.9658461
318 693 6.258883
320 693 19.068964
426 693 12.078313
429 693 15.609305
437 693 17.173876
438 693 18.929945
444 693 5.3002496
445 693 10.704695
492 693 15.378135
497 693 15.797424
500 693 10.415758
504 693 0.23117065
506 693 4.6672277
508 693 15.89192
511 693 8.1611633
515 693 2.9433115
577 693 2.7764456
581 693 8.8874817
588 693 2.2499084
592 693 13.491713
595 693 10.923004
599 693 4.6233039
603 693 9.7402296
609 693 11.367798
1023 693 12.429591
278 694 16.239222
282 694 19.190161
288 694 3.0339923
300 694 10.866002
314 694 1.8839155
352 694 17.396109
357 694 14.289093
362 694 2.9446194
364 694 3.2035828
370 694 8.6649218
373 694 6.6462927
456 694 9.4487867
458 694 11.454882
462 694 14.826202
470 694 0.39116997
474 694 6.5556116
485 694 18.648092
489 694 9.8810472
510 694 10.672215
511 694 14.567566
563 694 13.460649
566 694 17.122868
571 694 2.079664
585 694 0.79639977
290 695 11.858477
294 695 15.869904
332 695 13.033403
337 695 4.2302814
341 695 10.841805
344 695 10.733577
349 695 11.721257
467 695 15.472085
544 695 13.821847
548 695 0.23683821
552 695 18.454197
556 695 0.07640294
559 695 14.693669
306 696 3.4473965
309 696 9.0726576
329 696 5.6121826
522 696 17.961012
526 696 4.4660296
530 696 7.0751734
533 696 11.911555
536 696 18.595015
573 696 11.767034
592 696 11.509596
595 696 9.803772
599 696 1.0680063
603 696 5.7584491
638 696 6.8700519
324 697 16.562216
352 697 14.946311
497 697 16.271973
500 697 14.282335
503 697 14.630345
508 697 15.89192
515 697 0.53471154
519 697 9.5128736
577 697 1.7518179
581 697 10.773468
585 697 2.0003183
588 697 0.3036499
638 697 7.5147357
1023 697 13.006373
299 698 14.587075
480 698 18.714796
485 698 18.185751
489 698 10.680608
492 698 6.4715796
510 698 9.3858995
563 698 11.71657
566 698 8.9479723
570 698 14.46773
279 699 3.7508283
282 699 16.559546
288 699 0.12185233
292 699 0.99111283
296 699 8.961051
314 699 0.54533821
318 699 5.3719659
462 699 9.287262
467 699 16.585978
469 699 15.09552
474 699 10.571725
544 699 10.565621
547 699 13.628169
552 699 16.726902
555 699 11.679404
559 699 9.7490587
341 700 8.0692835
344 700 6.4840045
349 700 16.105106
352 700 17.826406
358 700 0.6276812
362 700 7.6008387
363 700 14.735631
371 700 7.1159363
458 700 13.553728
519 700 13.868495
522 700 16.289412
526 700 9.218379
530 700 13.655526
533 700 8.0587111
536 700 18.678175
573 700 16.822269
312 701 5.9985023
316 701 2.9142108
324 701 12.234824
325 701 3.06827
328 701 12.607793
329 701 7.0144653
333 701 2.9623849
336 701 11.509705
352 701 15.816062
457 701 1.8802098
503 701 14.630345
508 701 16.406904
515 701 5.7593207
991 701 16.184126
288 702 1.2830461
290 702 16.480745
295 702 7.4220386
299 702 9.6699305
303 702 2.6679447
308 702 4.9350739
389 702 1.6829355
393 702 3.5749164
396 702 17.236982
400 702 11.964198
405 702 1.5566145
408 702 18.834249
412 702 12.906865
416 702 9.9160328
420 702 6.7512512
424 702 11.2563
427 702 12.802124
431 702 14.694105
480 702 13.963209
508 702 14.729963
516 702 1.05787
519 702 14.757319
523 702 5.152566
526 702 17.72897
530 702 11.331613
617 702 3.5749164
992 702 3.1544278
270 703 2.0785196
275 703 4.8308783
278 703 4.7730036
282 703 0.084631786
373 703 6.1114721
376 703 19.244059
380 703 18.249838
481 703 8.0204554
489 703 13.496617
493 703 11.212267
497 703 19.129181
501 703 1.5562875
504 703 15.089417
511 703 14.567566
592 703 4.1418891
599 703 8.5608349
602 703 16.559601
610 703 4.6445575
613 703 16.631971
638 703 4.5461383
373 704 5.319541
437 704 5.2926202
504 704 4.2732239
508 704 12.906538
991 704 16.251265
296 705 6.6100531
304 705 11.193575
308 705 18.890381
313 705 5.8533258
358 705 4.2592731
362 705 5.858285
364 705 5.7518005
371 705 10.532379
486 705 1.0522025
489 705 10.680608
492 705 10.80355
497 705 12.9776
500 705 13.098253
527 705 5.9092932
560 705 1.2290955
571 705 12.675367
639 705 2.0816257
293 706 1.682881
299 706 18.35943
319 706 6.3380103
352 706 12.855094
438 706 13.364302
470 706 4.2180743
474 706 10.434396
481 706 7.9556055
510 706 11.646489
511 706 13.954926
544 706 14.797647
548 706 0.20098005
553 706 2.923584
555 706 9.0381079
559 706 4.1895185
563 706 17.54619
333 707 8.5364208
349 707 6.6332135
443 707 17.98052
450 707 10.851615
456 707 10.085078
467 707 16.585978
530 707 13.368661
533 707 16.294643
537 707 2.3792813
573 707 16.948154
337 708 6.3565936
344 708 17.313931
458 708 14.985003
462 708 15.550232
508 708 12.603651
515 708 4.0289741
519 708 6.2246051
522 708 15.10533
526 708 6.2329974
1023 708 14.567348
313 709 2.9633114
317 709 4.241889
321 709 3.6379132
325 709 9.3316212
329 709 9.0896606
341 709 6.2344141
375 709 4.6233039
407 709 10.9472
436 709 16.10903
442 709 8.0617628
492 709 19.124166
497 709 11.57074
500 709 11.239733
504 709 3.8467407
292 710 19.379862
295 710 18.938229
304 710 15.950121
309 710 0.12490409
372 710 1.8872942
391 710 6.5279279
417 710 13.826643
420 710 10.542297
446 710 3.5000393
474 710 11.210305
482 710 0.56860787
486 710 3.8010733
489 710 10.209874
510 710 12.714604
288 711 6.3058581
300 711 4.6549115
376 711 15.194375
467 711 11.907632
470 711 7.3323932
480 711 4.949842
365 712 11.212703
376 712 2.1923611
439 712 1.4759609
456 712 9.2969618
458 712 18.475451
462 712 17.633057
480 712 0.42103359
511 712 14.567566
296 713 0.3577641
300 713 7.6998029
304 713 14.925112
309 713 1.5565599
313 713 5.297143
317 713 7.1475439
321 713 0.86005074
325 713 3.7694113
329 713 2.5848389
333 713 3.7573678
336 713 14.063263
341 713 6.2344141
344 713 10.941096
362 713 3.0987332
378 713 5.4771423
444 713 6.3248773
451 713 17.672838
288 714 1.9155229
292 714 1.8436977
348 714 8.8932581
352 714 11.275046
357 714 18.141174
383 714 4.8672266
391 714 1.7099653
480 714 5.7959418
371 715 17.648315
296 717 11.640876
300 717 1.5371596
304 717 11.399569
308 717 13.412857
313 717 4.8451014
317 717 16.442053
321 717 3.2396588
324 717 18.487112
328 717 18.960789
332 717 19.513048
336 717 19.306946
341 717 12.685067
288 718 4.4625964
291 718 9.4252453
344 718 7.1737018
329 720 9.3902588
308 721 7.0964813
312 721 19.642149
318 721 0.86299354
321 721 11.992101
325 721 7.8606744
297 722 1.5130179
304 722 5.7019372
299 723 13.791711
308 724 12.108231
325 724 10.773577
297 725 5.1350732
300 725 12.171391
304 725 8.8978901
313 725 12.086923
318 725 3.4997122
321 725 16.398457
338 735 6.0382299
352 735 15.830558
362 735 8.8230677
363 735 16.994694
371 735 18.537903
437 735 6.9634576
458 735 14.154161
479 735 18.149675
504 735 10.823059
530 735 15.641458
537 735 6.7463465
573 735 12.276677
325 736 9.6600666
329 736 10.581207
333 736 5.1817756
341 736 5.920083
344 736 11.74142
348 736 2.1236966
349 736 13.616399
356 736 12.234715
360 736 17.810167
364 736 15.128326
368 736 4.1418891
372 736 17.077419
376 736 14.926583
380 736 12.497275
416 736 11.635698
437 736 13.400377
444 736 1.0804312
457 736 1.0188512
481 736 2.0252774
502 736 0.13547625
508 736 12.497602
511 736 13.941956
530 736 17.216166
992 736 5.0419397
302 737 14.854594
307 737 14.946584
310 737 18.905584
315 737 4.0367126
317 737 7.745307
323 737 9.5670424
328 737 7.1398053
331 737 11.537498
335 737 6.9536481
340 737 14.461409
344 737 1.6912187
352 737 6.0962133
484 737 13.0964
489 737 5.1348004
493 737 0.059618268
497 737 5.9165955
500 737 16.254534
504 737 8.2328796
566 737 8.1301012
570 737 13.926805
576 737 11.88082
581 737 18.648529
585 737 3.5750253
638 737 8.3791456
323 765 12.455531
328 765 7.1398053
332 765 13.975634
335 765 4.5404706
338 765 3.0139377
340 765 12.108503
344 765 2.8447833
373 765 7.0590429
497 765 15.114594
500 765 13.572802
506 765 1.7718724
279 766 3.7508283
280 766 16.838837
282 766 10.726111
294 766 3.1291962
302 766 9.4594679
304 766 18.942751
307 766 12.738637
309 766 2.5132861
311 766 2.0241873
313 766 16.208704
315 766 3.5842896
317 766 17.921011
319 766 6.5287452
